# .PCD v0.7 - Point Cloud Data file format
VERSION 0.7
FIELDS x y z
SIZE 4 4 4
TYPE F F F
COUNT 1 1 1
WIDTH 53
HEIGHT 1
VIEWPOINT 0 0 0 1 0 0 0
POINTS 53
DATA ascii
0.030858582 -0.034489002 0.87326145
0.02872422 -0.031168833 0.88204122
0.029952623 -0.031175179 0.8822208
0.030057454 -0.030057454 0.8853085
0.030163027 -0.028931884 0.88841802
0.03140061 -0.028937815 0.88860017
0.031511307 -0.027804093 0.89173281
0.03162279 -0.026662353 0.89488769
0.031735063 -0.025512502 0.89806485
0.031848133 -0.024354454 0.90126461
0.031962018 -0.023188131 0.90448743
0.032076716 -0.022013433 0.90773326
0.032192245 -0.020830275 0.91100252
0.031035051 -0.01963442 0.91410249
0.032308605 -0.019638563 0.91429538
0.031147616 -0.018434303 0.91741794
0.03242581 -0.018438205 0.9176122
0.032543868 -0.017229106 0.92095309
0.028801674 -0.01600093 0.92372721
0.03019847 -0.014777974 0.92731136
0.030309584 -0.013542579 0.93072337
0.031606141 -0.01354549 0.93092334
0.031722892 -0.012300714 0.93436211
0.031840507 -0.011046707 0.93782634
0.031959001 -0.0097833676 0.94131643
0.032078374 -0.0085105896 0.94483244
0.032198645 -0.0072282674 0.94837487
0.032319825 -0.0059362943 0.95194405
0.032441914 -0.0046345592 0.95554006
0.032564934 -0.0033229524 0.95916349
0.032688886 -0.0020013605 0.96281439
0.032813791 -0.00066966924 0.96649331
0.0315881 0.00067208725 0.9699831
0.03293965 0.00067223777 0.9702003
0.030353531 0.0020235688 0.97349834
0.0304708 0.0033856444 0.9772594
0.031832237 0.0033864083 0.97747988
0.031955723 0.0047593634 0.9812718
0.032080177 0.0061430125 0.98509336
0.032205597 0.0075374804 0.98894471
0.032332011 0.0089428965 0.99282646
0.032459412 0.010359386 0.99673861
0.032587823 0.011787084 1.0006818
0.032717254 0.013226124 1.0046563
0.032847721 0.014676642 1.0086626
0.032979228 0.016138772 1.0127008
0.033111796 0.017612657 1.0167716
0.033245429 0.019098438 1.0208751
0.033380151 0.020596264 1.025012
0.033515967 0.022106277 1.0291826
0.033652894 0.023628628 1.0333872
0.033790942 0.025163468 1.0376263
0.033930127 0.026710952 1.0419003
